ply
format ascii 1.0
comment VCGLIB generated
element vertex 792
property float x
property float y
property float z
property float nx
property float ny
property float nz
element face 0
property list uchar int vertex_indices
end_header
-38.03647 228.5587 -8.193386 -0.002530894 -0.9997836 0.02065113 
-45.51603 337.2583 -26.7298 -0.7029937 -0.4347813 -0.5628189 
-2.880425 452.7961 80.16362 -0.2102131 0.8821208 0.421513 
-26.90993 255.9255 47.4973 -0.8127539 -0.5247645 0.2530875 
31.98169 241.0617 106.9575 0.464058 -0.3675185 0.8059655 
26.16051 236.1933 -53.74388 -0.08794352 0.8079556 -0.5826438 
-42.8701 237.7573 -1.34917 -0.897793 0.4351549 0.06788151 
27.69531 287.6598 -31.8561 0.3357012 0.03459531 -0.941333 
28.37962 300.4715 -32.65913 0.3032165 -0.1992264 -0.931863 
57.80923 407.0994 -37.8321 0.6495199 0.2788734 -0.7073568 
-68.42838 374.2648 18.91788 -0.9967829 -0.07948342 -0.0103087 
7.069432 465.7884 29.99338 -0.03160396 0.9991779 0.02538879 
-31.75013 413.9898 100.5974 -0.6546451 0.3804099 0.6532443 
-24.25838 243.0437 -36.73952 -0.1849392 0.6976276 -0.6921801 
82.54335 396.0047 50.20331 0.9813145 0.0536861 0.1847693 
-45.01873 428.8662 71.40907 -0.7255528 0.5372653 0.4300224 
-4.00901 236.49 65.54539 -0.6199353 -0.6984271 0.3576032 
-49.09087 368.961 -35.66118 -0.7456851 -0.09788765 -0.6590688 
-56.10272 426.7657 2.476579 -0.8353866 0.5049791 -0.2170839 
64.20253 380.0552 -37.15554 0.7427765 0.03021393 -0.6688574 
84.01441 387.533 5.095348 0.973159 0.0848566 -0.2139182 
73.32452 325.4109 95.78739 0.8263223 0.04320634 0.5615379 
-54.38554 385.9347 78.39043 -0.9050006 -0.00271632 0.4254016 
59.47297 297.8003 105.3364 0.6450132 -0.1110058 0.7560659 
78.82356 363.642 -11.94573 0.923443 -0.08993428 -0.373048 
81.11099 323.9496 61.77884 0.9887024 -0.1466683 0.03091819 
-40.53385 360.981 106.4609 -0.8243178 0.03196617 0.5652241 
19.22396 462.2391 53.84556 0.1269708 0.9697031 0.2086962 
-23.73116 422.0025 -42.78659 -0.3947879 0.4962947 -0.7731974 
70.50323 349.4882 -23.16927 0.8151765 -0.2424426 -0.5260312 
-67.03113 405.5389 23.12148 -0.9813871 0.1898082 -0.02919116 
77.09597 416.7185 1.412541 0.8961696 0.3593155 -0.2603314 
81.29893 323.1931 30.05302 0.9632604 -0.2684146 -0.009112608 
62.76301 228.5978 9.331252 0.0770343 -0.9950406 -0.06292764 
62.5097 435.1375 -7.591795 0.7138308 0.6086436 -0.346408 
37.71873 453.7203 -7.120425 0.3781644 0.8500172 -0.3666911 
39.85851 310.9642 -31.31321 0.4385092 -0.354229 -0.825973 
-19.88796 258.9683 -27.40401 -0.5371818 0.3397731 -0.7720038 
6.010218 443.4904 97.97478 -0.1302872 0.7720631 0.6220481 
71.78868 311.0325 5.64504 0.9189729 -0.2774299 -0.280217 
13.43719 228.181 5.620117 -0.0001205721 -0.9999898 -0.004503739 
53.64228 251.3679 64.53912 0.6986824 -0.7050997 -0.12115 
80.71526 411.8961 48.00408 0.9548188 0.2397211 0.1756559 
2.788543 227.6405 -53.8682 0.01727225 -0.9990854 0.03911521 
75.10497 318.0295 92.0425 0.8830906 -0.1576552 0.4419228 
45.83276 442.3541 -19.82919 0.4841281 0.7205361 -0.4964351 
76.10764 426.8144 20.01359 0.8682486 0.4845391 -0.1066117 
-43.21336 313.7716 -9.748661 -0.7182921 -0.4420096 -0.5372931 
66.49181 430.9501 66.09246 0.7551162 0.5640223 0.3341831 
37.76941 244.7333 104.209 0.6227813 -0.1952078 0.7576526 
-53.63939 331.8222 36.45037 -0.9310458 -0.114216 -0.3465667 
-49.84244 339.1948 89.99004 -0.8825364 -0.04382556 0.4681974 
-36.37885 252.193 -7.154456 -0.9100739 0.2367718 -0.340154 
88.23669 355.654 27.46976 0.6827093 -0.7082644 -0.1796371 
78.56835 415.1154 4.563569 0.9124241 0.3382108 -0.2304249 
35.25259 457.9834 2.446892 0.3413191 0.9097411 -0.2363734 
-0.9275699 461.4848 0.2024402 -0.1150715 0.9515043 -0.2853034 
39.365 247.4081 103.4186 0.6401746 -0.1280866 0.7574763 
7.098003 228.2077 -5.055535 -0.001568531 -0.9999987 0.0004003617 
44.19512 370.7088 120.4681 0.5549349 0.1321858 0.8213246 
47.82624 445.9797 -11.78663 0.5175303 0.7569422 -0.3989998 
12.35682 227.9422 -47.02079 0.01323239 -0.9998614 0.01010304 
22.96128 293.0696 126.1264 0.4823236 0.2121187 0.8499233 
-27.93125 363.5811 120.3916 -0.5998083 0.204513 0.7735661 
74.92712 286.6096 54.50319 0.9619268 -0.2728861 -0.01516773 
-27.37136 228.4111 -11.84603 -0.009610544 -0.9998761 0.01246262 
-6.202488 381.1596 -59.59156 -0.174885 0.02166225 -0.9843505 
-23.16975 343.6102 119.0567 -0.1919275 -0.7366127 0.6485102 
-34.5488 440.05 70.72939 -0.6227568 0.6665733 0.4096999 
55.763 436.1611 -17.14699 0.6169263 0.6332546 -0.4673227 
-39.32104 248.4262 0.2949876 -0.9611029 0.1931352 -0.1974339 
81.87035 340.289 68.30863 0.9870387 0.1225495 0.1036155 
-52.70648 321.1871 52.37193 -0.9742573 -0.2155919 0.06589992 
-52.44329 228.7646 -15.65006 -0.1659066 -0.9856611 0.03077724 
12.42289 228.1936 2.409833 -0.0003491432 -0.9999953 -0.003039288 
-63.05526 349.847 9.323338 -0.9676793 -0.2495387 0.03642999 
66.43143 233.5917 -2.318448 0.9669937 0.2527342 0.03238411 
81.44009 352.0295 5.120165 0.9781449 -0.1467765 -0.1472721 
-17.82203 425.689 104.8145 -0.4878516 0.5408598 0.6851799 
2.927227 241.5325 -42.92751 -0.1264844 0.6590453 -0.7413912 
-25.18064 369.5019 120.3559 -0.5386886 0.3004768 0.7871012 
82.5624 392.3359 50.75927 0.9832689 0.01623828 0.1814349 
-63.4398 315.3257 26.36128 -0.4824036 -0.7822138 -0.394244 
76.45004 425.8156 42.8618 0.8749135 0.4681681 0.1238748 
-60.9705 384.2957 61.36393 -0.9438633 -0.05793457 0.3252163 
-20.36395 272.8359 104.6406 -0.712861 -0.3408899 0.6128811 
80.84782 417.735 26.85255 0.9397824 0.3409888 -0.02314371 
48.87536 448.2102 64.40352 0.5510032 0.7838191 0.2863967 
20.28071 429.4312 -44.40231 0.1480165 0.5820022 -0.7996027 
59.46259 266.597 -7.044671 0.821573 0.05770014 -0.5671759 
-79.3293 357.1742 19.72054 -0.4123396 0.5045017 -0.7585869 
35.1558 353.0628 121.679 0.167362 -0.4946857 0.8528048 
80.588 346.1581 43.28127 0.9986762 0.05061555 -0.009150997 
-52.41473 308.0143 40.60964 -0.8913305 -0.3231599 0.3179584 
-38.51151 267.6293 2.949407 -0.9428183 -0.02667895 -0.3322378 
48.74669 261.7207 -21.843 0.7228551 0.2421781 -0.647171 
-21.82248 265.577 97.72584 -0.7548013 -0.4250471 0.4996097 
32.43281 417.7815 115.2168 0.2934256 0.4514983 0.8426451 
-35.43814 300.4078 97.866 -0.8035308 -0.3096763 0.5083689 
65.27845 423.5288 -18.17167 0.7563785 0.4692583 -0.4557282 
20.22021 354.1682 -56.77343 0.1247132 -0.2829027 -0.9510061 
69.04139 280.7471 81.42253 0.9102719 -0.2871477 0.2982466 
46.27998 258.0948 100.6387 0.5901008 -0.3836783 0.7103323 
-48.0015 329.1181 91.61861 -0.8930212 -0.125957 0.4320278 
81.01749 332.3486 75.20596 0.981195 -0.02730517 0.1910779 
-7.305962 419.7926 114.4522 -0.3128169 0.4611853 0.8303335 
24.05538 231.1973 88.42165 0.1392858 -0.9858549 -0.093217 
-33.55602 265.8997 -8.07686 -0.870026 0.106899 -0.4812768 
40.41621 341.9625 113.4616 0.0123009 -0.6371483 0.770643 
-37.36097 323.3156 -23.98262 -0.6054421 -0.5086309 -0.6121557 
69.94408 402.386 -25.10008 0.8295383 0.1989029 -0.5218276 
78.90803 306.8647 43.33405 0.9822688 -0.1847781 -0.03170162 
-14.21265 303.6855 116.1759 -0.299569 -0.0356431 0.9534086 
-40.59902 244.226 2.525259 -0.9650657 0.239056 -0.1072404 
-0.7971399 465.0843 23.10804 -0.1429348 0.9890029 -0.03798582 
82.60553 379.0795 46.99648 0.9805372 -0.1031334 0.167064 
-0.3928068 227.8051 43.81479 -0.009201125 -0.9997714 -0.01930383 
-37.44413 287.2533 86.30524 -0.8767003 -0.2655505 0.4010978 
-28.39152 456.0567 31.07788 -0.4763609 0.8774927 0.05555929 
-0.3508478 236.8506 100.0934 -0.5093591 -0.817917 0.2675163 
48.96143 402.2702 -46.38205 0.5221304 0.2396042 -0.8185167 
-4.567194 357.1769 -57.23694 -0.1577055 -0.2612295 -0.9523067 
84.913 391.797 36.35921 0.99192 0.02933529 0.1234271 
15.60398 380.9954 127.9253 0.1041989 0.06959549 0.9921184 
24.44616 459.9469 -1.264949 0.196505 0.9360527 -0.2918753 
53.28118 228.1722 -43.23415 0.0009882756 -0.999902 0.01396353 
53.18874 228.4948 18.32404 0.02035491 -0.9997411 0.01017242 
-52.61098 314.8931 13.0562 -0.9506859 -0.3086034 -0.03098915 
22.9406 254.2099 -38.7375 -0.05487493 0.3487159 -0.9356205 
-50.54756 333.3561 87.26266 -0.9208055 -0.134361 0.366148 
-55.40232 395.4012 75.12304 -0.9006768 0.09738027 0.4234363 
58.15295 257.457 -10.77394 0.8368748 0.1659928 -0.5216194 
3.907714 338.1356 119.8064 -0.3861559 -0.08738572 0.918285 
31.52747 332.8532 115.6015 0.5899134 0.2440541 0.7697011 
-37.24878 386.3859 104.7607 -0.7705674 0.1323188 0.6234723 
-67.99216 384.8835 8.830104 -0.9922667 0.02237396 -0.1220907 
-37.92474 446.7556 0.8631641 -0.5941498 0.7629511 -0.2547383 
38.85817 250.6387 104.2832 0.6149018 -0.1136335 0.7803738 
68.39864 343.6233 -23.36148 0.7804762 -0.30363 -0.5465033 
-54.31444 423.5595 -8.706779 -0.8191932 0.4670052 -0.3329093 
82.58175 406.205 43.87357 0.9747031 0.1622287 0.1537396 
25.03416 411.8222 119.576 0.1424439 0.3509063 0.925513 
17.59038 427.3118 -46.37221 0.1200658 0.5552916 -0.8229432 
18.68466 228.1338 -29.3902 0.005023919 -0.9999677 0.006279677 
-44.51369 297.3433 5.637827 -0.8905653 -0.2860873 -0.3536205 
-20.43135 390.7186 118.9469 -0.5207446 0.1655072 0.8375155 
56.58563 228.0217 -53.45129 -0.007212584 -0.9998696 0.01444818 
66.38916 322.1631 103.1148 0.597633 0.001215424 0.8017688 
38.35321 290.2793 -26.05367 0.5727996 -0.06454463 -0.8171503 
-62.43009 349.9247 39.5423 -0.8127982 -0.5775009 0.0764965 
71.08436 284.0544 77.89944 0.9306306 -0.2564901 0.2610355 
48.94331 449.257 61.20324 0.5371513 0.8033095 0.2572204 
-25.24623 429.8932 -36.17527 -0.4011467 0.5894991 -0.701122 
-41.11129 228.7563 18.81017 -0.6222265 -0.7158904 0.3167572 
-39.23753 248.1097 23.13482 -0.9532506 -0.01375733 0.3018676 
84.16043 375.371 36.35152 0.9765303 -0.1052571 0.1879089 
-32.59947 293.664 -9.582902 -0.7514966 -0.187758 -0.6324555 
4.015505 449.8262 88.28606 -0.127463 0.8546876 0.5032519 
-13.5485 244.3119 80.92789 -0.6477107 -0.7617435 0.01475068 
71.3088 307.3772 7.860385 0.9382582 -0.26753 -0.2193154 
73.3456 290.3766 75.20171 0.9511378 -0.2106291 0.2257704 
77.3039 414.037 -1.253893 0.9029835 0.3195398 -0.2872543 
24.13038 458.7366 -4.950091 0.1864796 0.9199476 -0.3448504 
67.92065 372.1312 -32.48289 0.7964496 -0.04009786 -0.6033739 
-73.73136 353.0176 19.34928 0.5280976 0.3660698 -0.7662283 
-42.14739 400.7687 94.79838 -0.7684126 0.2032718 0.6068135 
-65.28567 375.8759 -4.905159 -0.9658887 -0.03406239 -0.2567072 
72.10694 430.4567 50.72143 0.8115753 0.5463103 0.2071002 
-36.2422 256.9705 -5.040274 -0.9202739 0.1483525 -0.36206 
37.34296 357.808 123.2206 0.3138439 -0.2931893 0.9030736 
-17.26823 404.5364 116.8253 -0.469561 0.3027843 0.8293577 
16.03123 463.7297 8.784748 0.1036422 0.9776507 -0.1829136 
-39.05242 260.7647 25.26796 -0.952433 -0.07579542 0.2951717 
-32.64053 449.8374 -1.154949 -0.5228897 0.8035509 -0.2844158 
69.66321 316.4324 99.54897 0.7206385 -0.1648087 0.6734377 
-22.99934 253.9118 77.81339 -0.7701704 -0.6218949 0.1417192 
52.17569 294.1372 110.0085 0.4853204 -0.02332359 0.8740253 
-64.52281 385.4102 50.78991 -0.9560105 -0.05432849 0.2882575 
-25.8199 453.7148 -1.213316 -0.4163038 0.863475 -0.284784 
51.54638 435.6415 84.57977 0.5981815 0.6438147 0.4771596 
73.84158 335.4591 93.08032 0.8308453 0.13601 0.539627 
57.10941 258.6231 36.38097 0.8840145 -0.4349441 0.1712951 
92.11247 346.799 8.358398 -0.6824918 0.091046 -0.7252004 
50.62127 228.4361 16.19294 0.01740508 -0.9998484 -0.0005647822 
59.46698 336.0533 106.5923 0.6232226 0.08282469 0.7776461 
62.26632 261.2454 23.11039 0.9233523 -0.1706596 0.3439417 
-40.57919 441.8834 -5.976565 -0.6263597 0.705211 -0.332191 
48.39035 374.2275 116.8581 0.5904951 0.1471054 0.7935209 
-44.90782 377.9733 95.34341 -0.8529108 0.07767914 0.5162451 
-22.03754 282.3755 -20.22671 -0.6699274 0.05361056 -0.7404884 
41.53518 228.3795 -15.6647 0.01229798 -0.9999136 0.004650248 
93.94169 346.1119 12.49153 0.9762504 0.100702 0.1918181 
21.88623 233.884 -56.3635 -0.1015235 0.8281984 -0.5511627 
57.8081 395.9861 104.7375 0.7334573 0.1733744 0.6572531 
63.23877 423.0616 82.52912 0.7510538 0.4652111 0.4685049 
38.37854 228.1719 -39.56936 0.004560417 -0.9999592 0.007788448 
-54.33352 326.508 45.44598 -0.9690334 -0.2318776 0.0848936 
-58.39257 427.9088 26.8194 -0.857226 0.5149195 -0.00465022 
71.44065 297.1786 22.72823 0.9263467 -0.225474 -0.301734 
6.706164 339.6072 -51.04426 -0.04756273 -0.4886431 -0.8711863 
66.35736 379.5707 -34.63874 0.7780589 0.01623114 -0.6279815 
-6.68485 272.4134 -30.97365 -0.33911 0.1359374 -0.9308734 
72.17046 426.8122 1.93125 0.8280858 0.5026816 -0.2481638 
-32.64625 353.6887 -45.98954 -0.506994 -0.2617785 -0.8212363 
10.269 228.1859 -15.08174 0.0006700749 -0.9999906 0.004263282 
-47.65773 416.74 78.75439 -0.7843661 0.3776151 0.4921144 
17.19804 289.5479 -33.7374 0.04274881 -0.02271532 -0.9988275 
60.98413 338.2984 105.1901 0.6705172 -0.07157806 0.7384331 
-55.46135 410.3561 69.31092 -0.8659566 0.2596903 0.4274109 
73.7641 417.2867 67.04294 0.8751777 0.3584734 0.3249012 
-3.166653 439.9193 99.31869 -0.2706448 0.7348377 0.6219043 
-75.30064 355.6576 19.75174 0.4641557 0.4613827 -0.7560989 
18.71853 387.471 -59.81579 0.1296091 0.1009426 -0.9864137 
-50.56302 323.8722 -7.566019 -0.7829018 -0.422377 -0.4567958 
-31.02339 418.325 -40.8735 -0.4901348 0.4445945 -0.7497358 
70.06242 367.3497 -28.97281 0.8224839 -0.08333864 -0.5626499 
73.07538 300.9883 24.53791 0.8885629 -0.2282478 -0.3979435 
-34.13201 413.4662 98.46445 -0.6740679 0.370738 0.6388942 
-10.55916 246.9693 98.47984 -0.7460759 -0.4277267 0.5103144 
-2.48618 311.1272 117.988 -0.1210395 -0.08978821 0.9885786 
76.08272 363.6393 75.20747 0.9558846 0.08905454 0.2799176 
19.19895 254.8408 115.6622 0.2489825 -0.2066571 0.9462033 
11.38295 359.3262 129.1862 0.03424314 -0.1570326 0.9869996 
70.70034 371.171 88.85944 0.9271064 0.07922747 0.3663288 
74.39841 291.4512 71.43489 0.9618784 -0.1990575 0.1875259 
65.58978 388.6149 -34.71609 0.7697075 0.09408581 -0.6314256 
-41.70163 446.3978 12.53725 -0.6426669 0.7579542 -0.1117349 
-37.45551 412.4619 -39.4124 -0.5742651 0.3665507 -0.7320248 
-17.28765 412.4598 113.3515 -0.487507 0.3947499 0.7787871 
-58.74521 394.4424 67.6537 -0.9263276 0.05190825 0.3731258 
-20.47914 442.5481 -26.14542 -0.3317325 0.7279226 -0.6000684 
5.464023 366.3182 129.4402 -0.02679828 0.08276488 0.9962087 
43.65609 311.7785 -29.47377 0.4969939 -0.3605075 -0.7893234 
-54.75797 364.7325 -27.32792 -0.8345152 -0.1414826 -0.53251 
-5.731577 237.1812 -46.25687 -0.09012745 0.8010023 -0.5918382 
-38.68881 276.0982 68.72603 -0.9031408 -0.4008338 0.1538472 
83.99203 389.7132 42.72285 0.9868388 -0.004384907 0.1616474 
-19.91391 435.2878 -34.20662 -0.3401462 0.6474134 -0.6820238 
-38.33406 276.6671 71.84621 -0.8993787 -0.3932056 0.1910689 
-37.55535 381.6434 105.3655 -0.7787855 0.1300991 0.6136509 
85.18282 381.7047 9.893826 0.9897121 0.02441707 -0.140974 
-40.42078 231.607 20.40149 -0.9433618 0.05626659 0.3269596 
-41.83297 416.1736 -33.59018 -0.6312953 0.4012235 -0.6636912 
53.13213 369.5458 114.6382 0.5941043 0.2790345 0.7544401 
80.09655 314.8571 53.90571 0.9883696 -0.1460661 0.04231131 
36.23707 361.9949 -54.65431 0.3350048 -0.1545284 -0.9294583 
-52.98572 321.1425 48.52417 -0.9782637 -0.1883404 0.08676445 
-32.485 280.3546 91.54172 -0.8320462 -0.3059973 0.4626712 
-62.01326 381.6766 57.67227 -0.9460062 -0.08715697 0.3122114 
-28.55369 314.8492 110.6123 -0.4666115 -0.1561302 0.8705728 
-18.33568 314.7902 114.7494 -0.301571 0.02295115 0.9531674 
-22.09837 300.5265 112.1686 -0.5326675 -0.1573715 0.8315645 
55.32188 448.9883 12.49703 0.6010955 0.7851709 -0.1489656 
-41.14055 278.2294 53.98827 -0.9202916 -0.391031 0.01257322 
60.08204 395.4558 -39.3485 0.6831903 0.1702405 -0.7101191 
16.75989 441.1626 -34.6315 0.101261 0.7122862 -0.6945463 
59.40509 431.5703 -18.06542 0.6734375 0.5755378 -0.4639376 
22.44051 232.063 100.0992 0.1061535 -0.9439638 0.3125119 
2.290165 350.9171 -56.09374 -0.07306086 -0.3398393 -0.9376413 
92.32562 330.3193 14.90244 0.6865427 -0.0762612 0.7230791 
-8.831576 227.8435 -47.44913 -0.01198671 -0.9997538 0.0186743 
6.010203 389.1274 -60.24839 -0.01943022 0.1301428 -0.9913049 
-14.65755 413.5755 114.3369 -0.4451647 0.4044079 0.7989259 
41.06642 391.7715 -52.99807 0.4076589 0.1330189 -0.9033937 
35.17447 235.6373 97.41969 0.477841 -0.8416506 0.2515796 
-41.56432 318.5653 99.50899 -0.8167166 -0.2479506 0.5210513 
12.38325 228.1343 -25.6419 0.002110283 -0.9999775 0.006380238 
-48.6305 349.8209 92.18395 -0.8913867 0.02550953 0.452525 
-17.22221 461.1268 23.13359 -0.3350042 0.9419968 -0.0203522 
-45.50645 293.0045 25.79558 -0.9563107 -0.2900555 0.03657376 
-42.19693 446.8814 25.23635 -0.6430339 0.7658115 0.006336093 
77.06763 365.2413 71.41309 0.9654747 0.03052058 0.2587027 
38.90376 456.4106 2.011045 0.3796096 0.8899826 -0.2526411 
40.04746 342.36 -47.5379 0.3726512 -0.3614573 -0.854681 
-16.87308 228.3102 -11.85661 -0.008369823 -0.9999331 0.007976969 
19.76703 228.0154 -48.52644 0.008339103 -0.9999586 0.003619846 
-40.62723 377.4672 -44.30448 -0.6154749 -0.0277634 -0.7876673 
-31.6223 348.2867 -44.71931 -0.4873758 -0.3233397 -0.8111203 
33.99185 437.3408 -33.53653 0.2987297 0.6679112 -0.6816562 
-21.1331 260.7015 94.26311 -0.7693307 -0.4566659 0.4467511 
6.39996 321.5239 123.256 -0.5706449 0.1799966 0.8012276 
65.98955 267.0754 67.73968 0.8567285 -0.5087845 0.08458497 
68.40768 302.0977 95.7422 0.8277774 -0.2432376 0.5055888 
58.00235 239.3003 -37.99444 0.5348015 0.8051463 -0.2563722 
-31.60051 444.7039 -13.9686 -0.497859 0.7541259 -0.4282879 
-56.41876 425.4559 50.59489 -0.8426655 0.4798763 0.2442001 
-1.405511 271.3126 116.2478 -0.3777747 -0.2708626 0.8853925 
20.86953 358.3479 -57.7525 0.1372152 -0.2142349 -0.9670964 
67.1693 381.1875 94.74537 0.8689521 0.06641895 0.4904189 
59.06434 383.8293 -42.10661 0.6625644 0.05599241 -0.7469092 
-41.24382 280.3693 63.4873 -0.9249144 -0.3620203 0.1160806 
-10.86706 429.9109 105.7463 -0.3947429 0.6074158 0.689365 
-21.51705 309.4033 -26.77846 -0.4795364 -0.4087845 -0.7764921 
16.68912 230.7131 -60.13007 -0.1151638 0.8167845 -0.5653322 
28.2006 345.5741 118.3629 0.5076762 -0.4448318 0.7378275 
0.2585269 258.097 -35.07674 -0.1976476 0.1359296 -0.970803 
4.386102 465.4175 19.53583 -0.06212182 0.9950801 -0.07717922 
-7.123714 239.7451 82.1338 -0.5037205 -0.8629246 -0.04033352 
-20.99442 456.8374 1.937612 -0.3606271 0.8974013 -0.2542025 
53.69128 450.8138 40.25703 0.5608683 0.8220675 0.09814146 
-54.7947 417.8163 -14.55195 -0.8237573 0.4015338 -0.4002432 
-43.37489 371.1536 -41.6142 -0.6513393 -0.08241671 -0.7542974 
38.23658 237.9725 58.73703 0.6961817 -0.6919654 0.1910886 
-31.58409 336.52 109.853 -0.508945 -0.02809895 0.8603402 
28.18235 462.8917 36.9514 0.252939 0.9643064 0.07832652 
52.13479 354.0501 -44.66716 0.5750315 -0.2086184 -0.791086 
-35.17588 256.3016 32.56486 -0.849709 -0.1370974 0.5091159 
-43.85767 405.0076 91.03518 -0.770396 0.2412814 0.5901468 
-4.575918 290.3102 119.3019 -0.3688967 0.1951246 0.9087583 
-47.15597 298.9347 57.64819 -0.9750292 -0.2036519 0.08856676 
52.00668 304.7442 -19.82635 0.6358728 -0.3025556 -0.7100182 
-24.71781 445.6678 75.17628 -0.5084725 0.7595102 0.4057091 
-54.23681 425.1208 57.64568 -0.8147492 0.4818251 0.3225341 
-68.70954 382.2055 16.29979 -0.9982553 -0.001139671 -0.05903502 
-49.71225 228.1758 -36.27636 0.007199113 -0.9998962 0.01248381 
20.3455 228.0135 -51.64199 0.007928044 -0.9999684 0.000627515 
-27.912 417.7716 -43.09227 -0.4374886 0.4346189 -0.7872167 
-44.92961 423.6013 77.20839 -0.7507316 0.4539435 0.4799347 
80.41523 341.8844 74.54426 0.9513785 0.1690235 0.2575073 
1.241678 446.3681 -29.03471 -0.09513239 0.7709662 -0.6297309 
15.03747 342.9039 126.2282 -0.1134354 -0.07644761 0.9905999 
55.90643 288.7228 -11.25066 0.6578593 -0.1487131 -0.7383127 
-53.11069 313.7392 42.73069 -0.9245909 -0.1707939 0.3405306 
35.74849 228.2653 9.285245 0.01037899 -0.9999171 -0.007610143 
51.53403 249.6306 63.01495 0.6776398 -0.7214726 -0.1424135 
20.3691 453.6759 -17.25165 0.1388008 0.8583568 -0.4939209 
-67.18356 368.9886 32.62599 -0.9827088 -0.1442739 0.1160537 
55.69011 280.2337 -10.60216 0.6932793 -0.007695939 -0.720628 
88.83211 327.5854 10.4962 -0.6173867 -0.04365556 -0.7854475 
-49.11195 322.2787 84.19501 -0.9357025 -0.2641968 0.2337966 
0.777641 319.1826 -38.96929 -0.1425836 -0.40732 -0.9020867 
-45.97592 305.3102 74.67603 -0.9520876 -0.231914 0.1993613 
-30.80422 247.9217 -26.71682 -0.5791656 0.7083219 -0.4035435 
-54.34828 342.8611 74.54317 -0.9861472 -0.05065621 0.1579478 
15.98363 330.9047 127.4488 -0.2758188 0.2087653 0.9382649 
-53.38237 341.4815 79.85766 -0.9803425 -0.02990735 0.1950233 
5.984476 462.5134 1.849436 -0.02416591 0.9662622 -0.2564241 
-68.91866 336.5977 18.8235 0.4692534 0.05430227 -0.8813924 
-61.91763 391.7603 -13.99511 -0.924165 0.08639973 -0.3720944 
-34.32488 451.6833 10.42311 -0.5519041 0.8220911 -0.1398863 
65.44556 228.0164 -50.67029 -0.006203028 -0.9997624 0.02089853 
35.17029 461.0714 29.47611 0.3440338 0.9389264 0.007605295 
43.71968 228.3931 4.444677 0.01359831 -0.9998925 -0.00548159 
77.73545 423.5972 19.43776 0.889228 0.4432888 -0.1129986 
-31.80278 251.6921 -17.68246 -0.7829282 0.5117511 -0.3537434 
57.84211 397.0182 -41.04233 0.649586 0.1893673 -0.7363274 
13.44613 465.6353 25.80691 0.06682772 0.9976984 -0.01148093 
44.45973 239.0331 43.77813 0.8282444 -0.3811182 0.4108041 
35.72483 371.4965 125.3357 0.3848833 0.03724568 0.9222134 
-28.46641 345.6801 117.1862 -0.5689525 -0.4733487 0.6724834 
-63.56997 393.8806 54.35947 -0.9502735 0.0189683 0.3108385 
47.85826 349.8407 -46.26384 0.5008186 -0.2590702 -0.8258713 
31.39017 339.8864 -49.44441 0.2205826 -0.4029801 -0.8882287 
-32.21482 228.4882 33.29632 0.01561503 -0.9991066 0.03927152 
41.5614 229.672 -63.81538 0.03411833 0.8176298 -0.5747325 
77.05508 339.1859 -4.937213 0.9261892 -0.223204 -0.3038972 
16.71554 447.6286 -27.17887 0.1001476 0.7866371 -0.6092393 
6.548748 289.7291 -33.12866 -0.1529832 -0.04141227 -0.9873607 
-61.73793 345.697 16.22151 -0.9697746 -0.2406288 -0.04043581 
-13.57643 228.2556 22.59232 -0.01272935 -0.9998913 -0.007435479 
-28.33835 391.7595 112.7697 -0.6494933 0.1866852 0.7370937 
-56.72161 328.1813 13.56862 -0.9550316 -0.2873027 0.07329208 
61.05779 264.4753 28.92466 0.9274672 -0.2954839 0.2291152 
-61.3576 407.1685 -8.15502 -0.9195284 0.248959 -0.3041167 
-57.15962 339.1966 -8.204618 -0.8788157 -0.3222646 -0.3518928 
67.32529 424.0612 -13.98836 0.7758643 0.477825 -0.4119683 
-38.0202 353.6183 -42.25685 -0.5878575 -0.2399265 -0.7725664 
-57.9522 389.7095 -22.99304 -0.8787524 0.08110677 -0.470336 
-68.43667 380.143 12.53187 -0.9958782 -0.0133489 -0.08971278 
-2.421893 237.5624 97.93757 -0.5371247 -0.8196902 0.1990102 
-37.44203 348.823 -40.98306 -0.5764305 -0.3012553 -0.7595875 
-11.52112 409.3155 -53.35683 -0.2324498 0.3179223 -0.9191803 
-51.33955 422.5178 67.22483 -0.7977186 0.4397082 0.4126764 
72.21551 295.2549 26.43006 0.9019964 -0.2773565 -0.3308713 
27.28648 343.4809 -51.89968 0.1697828 -0.3692172 -0.9137027 
-16.57497 249.1123 88.87164 -0.7861801 -0.5603176 0.2607011 
77.83158 313.314 78.3387 0.9644603 -0.2288492 0.1320775 
42.07181 415.0568 111.6246 0.517 0.4035405 0.7548947 
70.00683 274.5302 67.09866 0.9050587 -0.4118612 0.1060141 
74.01939 394.5003 80.42576 0.8996415 0.1033241 0.424228 
-60.35174 339.2211 27.35316 -0.01072241 -0.5659179 0.8243919 
-56.55623 350.3366 63.42753 -0.9868116 -0.08313061 0.1388964 
42.08337 238.7831 -50.48473 0.1069379 0.8034585 -0.585678 
-23.65333 311.6202 -26.662 -0.4834953 -0.4414626 -0.7558723 
63.24279 277.6732 92.67887 0.8496923 -0.3051227 0.4300269 
31.45684 232.2694 -60.11815 -0.04162857 0.8289921 -0.5577089 
31.98364 289.6989 -29.93871 0.4511625 -0.007832645 -0.8924075 
-10.81604 230.5077 51.12444 -0.697673 -0.2485208 0.6719299 
-18.76179 251.2234 86.71994 -0.7929538 -0.5551273 0.2511135 
18.22086 228.1878 5.072436 0.001850232 -0.9999864 -0.0048836 
17.12604 233.9669 -55.30487 -0.1127762 0.8284267 -0.5486264 
49.53198 413.0014 106.6504 0.6343646 0.3704252 0.6785032 
60.85545 265.5543 32.71681 0.9045853 -0.4209335 0.06738175 
23.9365 227.6179 47.02709 -0.008224032 -0.999857 -0.01477077 
-49.20798 439.511 15.65527 -0.7431574 0.6640158 -0.08246245 
3.463541 261.5941 -35.19934 -0.1710106 0.1440611 -0.9746803 
76.98766 366.4039 -16.68784 0.8999735 -0.07472575 -0.4294925 
3.343522 228.0487 -33.10992 0.0009866068 -0.9999392 0.0109852 
-38.1339 332.8119 105.3687 -0.6568644 0.05596218 0.7519291 
-52.698 347.0147 82.53431 -0.9623843 0.03507548 0.2694184 
64.10481 255.5193 2.027283 0.9720403 0.02723279 -0.2332293 
43.07258 275.9721 -23.49782 0.6574423 0.1490536 -0.7386154 
-34.81656 243.0784 -30.44301 -0.4713292 0.7837815 -0.4043951 
-1.887113 450.7037 84.64329 -0.2138212 0.8539029 0.4744789 
-18.31352 379.1315 121.6043 -0.4323832 0.0999604 0.8961321 
-30.03199 289.7747 -11.82679 -0.7670761 -0.08090071 -0.636435 
-60.51844 361.5894 51.24872 -0.921255 -0.2739233 0.2761435 
9.777388 423.0815 -49.76141 0.02398692 0.4899336 -0.8714297 
-40.1437 251.498 19.4213 -0.9867145 0.001857286 0.1624537 
52.0389 262.7105 -17.6085 0.7605888 0.2040505 -0.6163344 
-41.71604 446.2155 38.08172 -0.6380845 0.7613553 0.1148321 
85.69496 316.9986 15.3321 -0.6509339 -0.3081858 -0.6937627 
71.08955 435.1645 25.6782 0.7890276 0.6125701 -0.04683287 
20.54865 455.384 76.20473 0.1390907 0.9188654 0.3692428 
41.95916 319.4737 112.6188 0.3638302 0.08941038 0.9271641 
-53.92188 343.9973 77.32189 -0.9842175 -0.02336568 0.1754135 
-48.39321 311.7279 0.8823897 -0.8352912 -0.4126642 -0.3633138 
-54.86809 332.8398 57.656 -0.9798802 -0.1774394 0.09137806 
-42.93935 300.9898 82.05635 -0.9219859 -0.2514383 0.294484 
-27.42631 228.1279 -36.30581 -0.005062442 -0.9999312 0.0105883 
61.15876 239.4601 -25.61678 0.7258071 0.6773883 -0.1197883 
83.184 408.3946 18.92218 0.9693385 0.2298975 -0.0867748 
-12.49808 283.4813 115.5764 -0.5620067 -0.1133814 0.8193248 
-17.29589 324.4986 -37.84345 -0.2776637 -0.5339903 -0.7985971 
48.06746 455.0581 30.491 0.5007762 0.8653191 0.02112064 
47.40108 343.5074 -44.20359 0.4868802 -0.3433317 -0.8031631 
54.2767 243.2487 -34.16595 0.5707862 0.7645761 -0.2993768 
52.09641 249.1185 68.83961 0.6974801 -0.7071224 -0.1161869 
68.74612 410.3376 -23.10638 0.8108623 0.2929846 -0.5066186 
-28.41049 248.3786 -28.86706 -0.5196027 0.6714067 -0.5284184 
60.51869 436.1708 -9.698227 0.6875049 0.6245953 -0.3704291 
49.47373 298.938 111.2082 0.3319873 0.01409269 0.9431786 
36.68842 322.1887 114.8285 0.547202 0.1462325 0.8241274 
78.61634 402.3453 64.51044 0.9511992 0.1562546 0.2660914 
16.60281 293.0968 127.1286 0.0260036 0.007117803 0.9996365 
-43.22478 430.9595 -19.28814 -0.6549067 0.5809742 -0.4832867 
9.153184 227.983 28.40225 -0.005260393 -0.999894 -0.01357722 
-21.54489 296.8064 111.788 -0.5421863 -0.1698209 0.8229185 
41.52082 228.3084 12.48752 0.01399935 -0.9998645 -0.00865844 
17.62262 228.1886 -18.8075 0.003673995 -0.9999873 0.003431081 
-17.71555 247.9944 75.29276 -0.678115 -0.7349349 -0.005536906 
81.97168 361.1104 36.86679 0.855327 -0.2811657 0.4351571 
7.098088 345.5548 123.7506 -0.3523861 -0.4198653 0.8363833 
38.97055 291.9958 115.4859 0.4037748 0.2588395 0.8774782 
58.24038 245.7843 -18.69284 0.8086202 0.4974638 -0.3141069 
-42.38202 379.5823 99.06433 -0.830385 0.1003358 0.5480818 
39.5197 235.3404 50.64703 0.8348745 -0.4050938 0.3726709 
79.29669 364.2348 57.68557 0.9927968 -0.01185382 0.119222 
-57.62708 342.5334 39.05026 -0.8670652 -0.4934767 -0.06840071 
-37.34256 443.3065 60.25574 -0.6237714 0.709603 0.327678 
80.04429 398.0923 61.21258 0.9662068 0.1026185 0.2364607 
7.582424 267.1364 120.4813 -0.4082172 -0.471808 0.7815087 
-39.54444 406.6051 -40.27118 -0.6067556 0.2876059 -0.7410334 
-20.93861 251.266 67.80039 -0.6874894 -0.7253025 -0.03598007 
30.88813 462.4382 24.71049 0.29043 0.9565158 -0.02697695 
-50.61654 353.0644 -29.36402 -0.7784479 -0.2415877 -0.5793568 
-68.89272 349.7742 21.61399 0.5064209 0.2931073 -0.8109415 
56.13088 253.6678 -15.59882 0.8210754 0.2782184 -0.4984274 
48.41943 229.1743 -63.8099 0.08975846 0.8290091 -0.5519849 
76.39572 367.3055 73.48524 0.9523564 0.02466919 0.3039882 
-2.8671 244.2546 105.7278 -0.6566349 -0.3529652 0.6665179 
62.84582 264.2798 23.09695 0.9313795 -0.1822668 0.3151364 
-15.92252 266.9852 105.977 -0.6367282 -0.398892 0.6598956 
-63.12388 350.3858 3.997244 -0.9708512 -0.2305256 -0.06561885 
66.35697 234.0206 -11.93229 0.8995511 0.4361077 -0.024857 
-5.077068 463.1834 43.74403 -0.1952598 0.970229 0.1432807 
47.33603 324.9288 110.7306 0.209362 -0.05273233 0.9764153 
-13.09034 228.2761 18.87601 -0.01226603 -0.9999013 -0.006859651 
-15.24518 262.7692 -28.89365 -0.4639604 0.224149 -0.8570286 
-30.45224 408.6759 104.6727 -0.6540385 0.327526 0.68188 
29.28181 228.0564 -53.32927 0.003727421 -0.9999869 0.003520313 
17.047 454.8109 -16.07544 0.1139919 0.8769807 -0.4668091 
-55.13743 348.778 71.41367 -0.981778 -0.04001956 0.1857698 
62.91403 262.3276 60.82132 0.7939972 -0.6050894 -0.05861056 
30.26185 342.5179 -50.86948 0.2163162 -0.3793673 -0.8996042 
-54.85582 339.233 68.22823 -0.9874621 -0.1162599 0.1067808 
-4.116962 228.2084 -15.03631 -0.004208648 -0.999975 0.005672245 
14.04111 308.3284 -36.57368 -0.006403862 -0.2421489 -0.9702179 
64.73466 255.3654 5.672616 0.9953841 0.00315607 -0.09591894 
-3.050422 299.5163 -31.87946 -0.3008648 -0.1894305 -0.9346639 
29.74462 444.2888 -27.81603 0.2581398 0.7534253 -0.6047431 
-61.95656 336.5596 26.55791 0.1582272 -0.1108033 0.9811661 
-42.08521 391.7141 97.33088 -0.7951334 0.1257539 0.5932527 
85.48822 369.4432 15.70769 0.9953603 -0.08358514 -0.04765859 
73.88288 228.247 -39.5481 0.8743672 -0.4790676 0.07730584 
-67.75185 335.5544 27.6722 -0.2468021 -0.06221977 0.9670664 
-37.31992 277.7044 -0.6270307 -0.8642768 -0.0549498 -0.5000061 
54.68562 413.4779 101.1332 0.6913838 0.3626091 0.6249024 
-24.12497 315.3009 -28.58295 -0.4565936 -0.4769828 -0.7510058 
15.58833 281.4018 128.7563 -0.04737037 -0.3206895 0.9459991 
69.62258 433.7152 9.3931 0.7887045 0.5830996 -0.1947821 
75.416 350.4736 -15.04661 0.8756515 -0.1934436 -0.4425086 
85.00562 351.4648 31.60183 0.8375078 -0.385334 0.3874253 
58.6812 286.2261 -8.165554 0.713843 -0.1114172 -0.6913858 
86.01836 381.2494 25.7584 0.9967034 -0.02861913 0.07591766 
19.24909 317.1558 132.0026 0.1099809 0.2846465 0.9523028 
-8.85478 337.6406 118.0445 0.1081192 0.00351345 0.9941317 
43.07161 246.2712 -40.49384 0.3237982 0.7361206 -0.5943747 
77.79073 373.1578 69.82993 0.9510267 -0.06974971 0.3011366 
-31.57122 451.031 50.18483 -0.5230948 0.8239432 0.217921 
38.91055 228.3568 -1.270496 0.01232642 -0.9999179 -0.003521816 
-3.96908 398.8254 123.8385 -0.2125152 0.2727038 0.9383336 
36.26966 237.4792 66.61971 0.5060447 -0.8625047 0.00210998 
69.9921 296.9004 15.72706 0.976996 -0.1810141 -0.1127511 
77.1172 323.7738 88.89274 0.9153649 -0.01820749 0.4022134 
-26.81975 230.8833 -53.23277 -0.09300978 0.8420125 -0.5313794 
41.45194 458.1791 19.30178 0.416816 0.9062232 -0.0708791 
56.38679 419.8358 -32.50207 0.6224599 0.4316555 -0.6528531 
64.42036 292.1167 -1.249191 0.8776147 -0.1112431 -0.4662805 
82.05611 353.0357 8.204377 0.978569 -0.1346373 -0.1558056 
76.06724 419.4345 57.58987 0.8933669 0.3619158 0.2662943 
-22.77057 251.7206 51.30649 -0.7734372 -0.5904824 0.2304894 
61.71065 306.8612 -10.15271 0.7664703 -0.266179 -0.5845273 
-17.17309 243.2375 50.71523 -0.753043 -0.4495966 0.4804052 
70.26975 277.7362 43.34043 0.8682057 -0.4583864 -0.1900021 
-30.63886 427.3071 92.09865 -0.6179553 0.5176495 0.5917519 
68.98219 231.2374 -26.81034 0.7067149 0.70287 0.08079509 
-41.72931 228.6392 -4.988613 0.005219175 -0.999441 0.03302212 
18.22099 230.8019 91.58231 -0.0675562 -0.9971987 -0.03210901 
43.16228 423.7684 105.2948 0.5337725 0.511255 0.6735765 
44.14301 243.1292 63.45277 0.6178332 -0.7803366 -0.09673239 
28.19198 270.1519 -33.83574 0.2663188 0.1627383 -0.9500477 
80.44473 345.1943 71.42382 0.9542325 0.2255238 0.1964164 
-2.432386 260.1788 111.4977 -0.4245329 -0.3859266 0.8190436 
-43.72243 289.9101 68.14896 -0.9518937 -0.261119 0.1603596 
55.1215 394.969 107.8567 0.701098 0.1675095 0.6931105 
-61.44333 343.4092 5.561224 -0.9667751 -0.254397 -0.02506096 
62.67841 338.2762 -27.71148 0.7149293 -0.369881 -0.5933499 
-32.78439 248.3683 -21.97216 -0.6848681 0.6765596 -0.270597 
-41.39885 276.6733 26.32283 -0.9670417 -0.2105162 0.143225 
53.25667 437.3344 -18.74514 0.5862238 0.6510147 -0.4822047 
78.97569 381.1951 67.74333 0.9689474 -0.008479408 0.2471218 
-4.63826 380.0424 126.6351 -0.2465579 0.05953043 0.967298 
-46.12203 309.5014 79.32251 -0.9361228 -0.2847624 0.2063601 
-2.485568 268.6407 114.9596 -0.4055544 -0.2808027 0.869871 
-67.36965 397.6307 11.43441 -0.986195 0.1188307 -0.1153198 
-36.27996 367.8471 110.5217 -0.7270513 0.1799847 0.6625722 
78.69004 321.199 83.10596 0.9720666 -0.1336197 0.1929566 
-0.8239147 392.1617 126.0885 -0.1596223 0.1964406 0.9674357 
65.9874 235.1201 -8.665977 0.9294447 0.3683507 -0.02122318 
26.17645 298.3792 -32.94353 0.2652255 -0.1491956 -0.9525734 
-49.84524 420.4817 71.9813 -0.7926832 0.4135023 0.4479611 
45.76265 236.9737 -52.26967 0.1417271 0.8255364 -0.5462628 
51.51622 391.1318 112.0631 0.6616985 0.1250461 0.739269 
14.4888 335.1101 -48.80194 -0.01337008 -0.4950753 -0.8687472 
-18.39795 455.5075 -4.998774 -0.3123611 0.8833752 -0.349398 
-21.58057 228.4131 -5.025106 -0.01257386 -0.9998987 0.006661146 
-22.93273 254.9648 81.54143 -0.794035 -0.5671424 0.2187645 
34.04772 236.1865 71.39815 0.3975362 -0.9153293 -0.06432212 
43.5366 453.4408 57.77892 0.4515413 0.8636307 0.2241704 
34.66087 290.0405 -28.45482 0.515285 -0.01802832 -0.8568292 
-14.63795 268.6746 108.0983 -0.5922302 -0.3852743 0.7076914 
-65.59016 411.4093 22.57586 -0.9581608 0.2834821 -0.03956994 
60.74818 228.0511 -50.16697 -0.00440013 -0.9998564 0.01636687 
-22.58328 287.7849 108.6086 -0.6694551 -0.2334167 0.7052281 
-56.10632 339.1668 54.48206 -0.9894826 -0.1216708 0.07823316 
44.74954 318.0578 111.7361 0.3121413 0.07231045 0.9472798 
-15.6618 246.508 68.32172 -0.6481979 -0.7610168 -0.02632 
-34.25085 267.627 68.25188 -0.850078 -0.5123265 0.1220203 
-62.56917 340.8895 28.82098 0.08700285 -0.6267923 0.7743139 
-63.26788 412.9022 5.708253 -0.9325239 0.3152046 -0.1761964 
31.56867 310.7978 126.1017 0.833823 0.2428573 0.4957415 
10.72781 228.2028 -1.26744 -0.0006257443 -0.9999991 -0.001221045 
39.91485 234.4637 -56.91272 0.0376595 0.8289525 -0.5580497 
25.11648 228.0195 -60.25685 -0.00356855 -0.9999631 0.007806213 
39.38461 253.7592 104.4536 0.6073415 -0.1848758 0.7726301 
68.24295 271.8324 50.72432 0.8343919 -0.5313132 -0.1466169 
-6.246362 297.2304 -30.34048 -0.3520144 -0.1540852 -0.9232246 
-27.91501 353.1625 120.3753 -0.5220816 -0.1883808 0.8318314 
84.47702 365.7368 29.02394 0.9874068 -0.09272853 0.1281759 
68.84231 285.4048 26.30066 0.9138939 -0.3351281 -0.2291007 
73.33443 343.434 -15.51968 0.8407908 -0.2494186 -0.4804802 
56.29943 448.5236 43.33809 0.5907556 0.7966141 0.1281164 
-3.023761 276.1346 -31.68836 -0.2891107 0.1164002 -0.9501926 
-6.220053 377.9525 -59.61853 -0.1745311 -0.01763482 -0.9844937 
9.141763 439.3989 103.0745 -0.05765655 0.7212219 0.6903004 
-68.1218 372.2612 26.35386 -0.9918808 -0.1207878 0.03978325 
-66.07666 399.1304 43.89473 -0.9743094 0.1047562 0.1993669 
58.285 430.5203 -20.86464 0.6506792 0.5727915 -0.4985245 
-17.33301 457.7126 0.3725288 -0.3102876 0.9074183 -0.2833965 
54.24035 231.6279 30.01876 0.6873031 -0.02349972 0.7259906 
-3.566709 237.782 83.56271 -0.4352287 -0.8988626 -0.05120526 
28.11569 232.9247 67.19542 0.4869331 -0.7966358 0.3581447 
40.94412 454.9509 56.97229 0.4264938 0.8776302 0.2187877 
-4.048608 227.7751 47.50672 -0.01476441 -0.9997023 -0.01942411 
40.9867 294.0988 114.0455 0.3390183 0.2420867 0.9090987 
-27.48665 259.1063 75.09129 -0.8021568 -0.5741475 0.1640095 
50.4864 246.4521 80.51443 0.7810444 -0.6237661 0.02975982 
62.90223 375.8436 102.6756 0.7959947 0.1632609 0.5828707 
70.03216 285.6544 30.09356 0.8897036 -0.3605172 -0.280098 
-28.02781 252.6403 41.70313 -0.7954091 -0.306559 0.5228249 
-55.05272 331.7952 52.84489 -0.9793668 -0.1965629 0.0469446 
57.31903 262.2055 -10.76455 0.8095866 0.1321539 -0.5719307 
-58.78451 326.472 30.48857 -0.1490682 0.6662508 0.7306768 
51.06165 409.2477 -42.48255 0.5571806 0.3150567 -0.7683027 
69.78478 313.2294 98.47988 0.7459782 -0.2124533 0.6311736 
64.98509 280.3323 90.98247 0.8650892 -0.2788039 0.417 
20.90603 361.5559 -58.40873 0.1422619 -0.180827 -0.9731718 
38.19932 339.2446 112.6124 0.1897561 -0.07988092 0.9785764 
-24.72083 290.4005 107.4535 -0.685161 -0.2524506 0.6832445 
45.20374 301.6823 -24.06003 0.566974 -0.3020359 -0.7663646 
84.73491 395.4674 36.48486 0.9913761 0.059687 0.1166653 
73.79149 318.0241 5.188772 0.9245102 -0.2816601 -0.2568043 
-63.87805 388.5834 53.34118 -0.9519594 -0.03280424 0.3044619 
52.14802 314.7894 109.5842 0.324171 0.03580537 0.9453206 
51.10069 372.5694 115.2219 0.5885538 0.2062394 0.7817094 
37.34139 400.2493 -53.00339 0.3733415 0.2128261 -0.9029514 
-56.16795 427.2661 47.65101 -0.8356411 0.5042608 0.2177725 
-56.99157 381.1017 71.8987 -0.9308907 -0.05875112 0.3605425 
70.61268 422.0031 69.34281 0.8248472 0.4397556 0.3553056 
9.680799 359.4201 -58.86809 0.01036116 -0.211381 -0.9773488 
46.29258 445.1317 -15.08282 0.4833124 0.7527734 -0.4469243 
-31.58878 423.5321 -37.10243 -0.491422 0.5024436 -0.7113754 
-7.768411 286.1775 -29.07516 -0.3886734 0.03357637 -0.9207636 
52.09331 271.8945 104.7163 0.5942121 -0.4151812 0.6888662 
-50.17606 342.4324 89.52481 -0.8894958 -0.005662821 0.456908 
6.03795 397.5236 -58.88443 -0.02248139 0.2001664 -0.979504 
6.552102 230.4922 68.51351 -0.3361583 -0.5656896 0.7529892 
-9.411235 227.9519 50.21625 -0.2550766 -0.9645527 -0.06763102 
10.83087 227.6788 47.04458 -0.003454498 -0.9998364 -0.01774863 
19.24576 228.0078 -54.84466 0.008028216 -0.9999637 -0.00285257 
-62.86122 351.039 36.41023 -0.7454441 -0.6191966 0.2467972 
-17.8121 407.171 115.4943 -0.4878972 0.331082 0.8076763 
57.52797 420.9027 92.60367 0.7043485 0.4509993 0.5481722 
18.77904 227.7155 42.78611 -0.004841886 -0.9998595 -0.01604285 
-32.71365 442.6994 -16.04589 -0.5069567 0.7338319 -0.4522009 
79.15601 384.9584 67.15085 0.9686548 -0.01008286 0.2482061 
85.5105 358.2969 17.01104 0.6363571 0.3851223 -0.668379 
-47.2985 314.8991 81.97014 -0.9275136 -0.3099624 0.2089064 
-7.253014 386.3457 125.4365 -0.2937366 0.09193654 0.9514549 
-55.54829 230.3743 -23.58105 -0.5823395 0.8034799 0.1236964 
58.4722 288.1817 104.3497 0.6990034 -0.1876006 0.6900727 
4.897733 304.1429 126.3311 -0.8352428 -0.2101604 0.5081359 
84.17224 405.0251 28.9316 0.9840258 0.175891 0.02748637 
-25.18033 448.3471 69.06454 -0.4949934 0.7934613 0.3541196 
-55.69425 348.7331 68.26319 -0.9845852 -0.06245699 0.1633743 
-56.88055 429.3039 37.36959 -0.8347573 0.540772 0.1036623 
54.02907 254.327 86.77879 0.8360012 -0.4428304 0.324042 
-10.9767 419.8241 -48.94916 -0.2406438 0.4692388 -0.8496502 
-21.95216 408.65 112.0004 -0.5609875 0.3538704 0.7483774 
70.12109 230.7363 -39.52923 0.5614449 0.8260199 -0.04970625 
-0.4629631 227.9633 -39.44355 0.0003975907 -0.9998939 0.01455889 
-42.66946 431.4655 71.78358 -0.6714965 0.6031242 0.430504 
18.70138 329.2883 -45.45292 0.01892238 -0.4980305 -0.8669531 
79.10292 308.4751 40.5375 0.9813941 -0.1864642 -0.04579149 
-55.06334 324.2647 35.26941 -0.76697 0.5344068 0.3551989 
-26.24415 343.4878 117.1555 -0.4927081 -0.630033 0.6002475 
9.776355 227.797 -56.50086 0.04248855 -0.9990693 0.007439202 
19.17116 317.9596 -39.63957 0.02946036 -0.386285 -0.9219089 
15.58952 232.0305 71.86434 0.02399599 -0.9178219 0.3962663 
-4.64736 449.5646 85.28949 -0.2571712 0.8311442 0.4930134 
17.75302 413.5634 -53.75754 0.101711 0.3621996 -0.9265346 
-46.91963 331.8565 94.17616 -0.8595098 -0.06805077 0.506569 
-10.40499 227.9261 -43.71662 -0.008713907 -0.9998145 0.0171747 
54.22074 239.9928 30.61871 0.7474286 -0.08749214 0.6585557 
-4.380878 234.7494 62.32753 -0.6891712 -0.5476312 0.4744925 
-17.84673 396.5533 119.0851 -0.478304 0.2361 0.8458618 
0.1628641 265.485 115.2481 -0.4625399 -0.3347007 0.8209947 
80.72954 354.127 -1.26638 0.9715614 -0.150428 -0.1828655 
-44.39182 440.112 -1.703757 -0.6781352 0.6812575 -0.2757188 
44.21527 363.5959 -51.40561 0.4522107 -0.1315411 -0.8821578 
-14.66186 287.1853 -25.48628 -0.5259681 0.03534677 -0.8497694 
3.920835 427.7997 -46.73362 -0.04355305 0.5611154 -0.826591 
73.80658 379.583 -23.53594 0.872402 0.02184669 -0.4883005 
54.22486 268.0335 -13.49598 0.7571791 0.1334317 -0.639434 
10.89447 460.3206 -4.960628 0.03457697 0.9414634 -0.3353374 
-25.28483 310.6017 111.7185 -0.473914 -0.1058581 0.8741851 
-40.98311 273.8534 25.15977 -0.970143 -0.1948425 0.1444266 
-47.56007 231.409 -5.092193 -0.769067 0.5740929 0.2809861 
77.88932 342.4842 -4.676523 0.9364551 -0.1998163 -0.2883145 
-29.53144 333.4231 111.0857 -0.4610994 0.04611065 0.8861497 
79.63982 415.7507 48.08233 0.9387596 0.2950937 0.1779046 
31.52247 284.5797 122.3891 0.5820962 0.1291963 0.8027903 
-20.59059 241.0712 -39.50797 -0.09245934 0.7361209 -0.6705052 
-35.11979 272.2687 -4.321356 -0.8713237 0.02708826 -0.4899605 
17.70344 457.7731 70.75819 0.09738255 0.9414481 0.3227881 
14.48269 436.0406 106.4349 0.03946152 0.6840819 0.728337 
-60.78376 410.9425 55.97272 -0.919139 0.2480997 0.3059902 
74.96236 318.5603 9.321015 0.9421754 -0.2720452 -0.1956959 
6.527687 377.9484 128.4135 -0.04225864 0.04595387 0.9980493 
-31.13806 228.476 19.40494 -0.009429678 -0.9993756 -0.03405177 
-55.96713 391.2372 74.6367 -0.9125242 0.05021206 0.4059289 
-45.61621 234.0518 -4.928452 -0.8063466 0.5577276 0.1968376 
31.49113 228.2489 -22.58745 0.007197732 -0.9999603 0.005258038 
3.869428 228.2149 -4.475424 -0.00273471 -0.9999961 0.0006056863 
70.86324 275.5398 57.65833 0.9040313 -0.426457 -0.02935696 
-46.64919 295.2945 40.48919 -0.9496825 -0.3112302 -0.03520059 
82.34651 335.6783 29.45662 0.9537309 0.2942989 -0.06152806 
65.70702 275.9833 5.722768 0.970597 -0.07061083 -0.2301209 
-14.05901 371.6758 -57.52166 -0.2765566 -0.06958935 -0.9584746 
-5.488897 244.3798 103.0236 -0.6866561 -0.3936844 0.6111596 
-48.49121 342.9975 92.55074 -0.8576483 -0.01499167 0.5140181 
81.9353 369.4899 43.79658 0.9750401 -0.1402005 0.1721641 
-65.06537 408.8124 40.5809 -0.9633548 0.2208728 0.1521929 
33.08424 228.048 -60.22068 0.01513409 -0.9998773 0.004048014 
70.32016 424.1856 67.21896 0.8198895 0.4591645 0.3419783 
-28.65453 258.2189 46.54902 -0.8234425 -0.5210546 0.2245987 
-29.50774 261.621 -15.57308 -0.7997991 0.1819465 -0.5720286 
-39.57593 256.3314 22.61355 -0.9696634 -0.030197 0.2425717 
-24.2354 353.5971 -50.39259 -0.3920723 -0.2800635 -0.876267 
-67.46964 381.2262 5.124753 -0.9865038 -0.01106957 -0.1633636 
-12.02841 243.1421 63.5067 -0.6754681 -0.7272826 0.1216668 
2.356378 235.4171 -50.09865 -0.1064375 0.8226538 -0.5584907 
-4.925787 342.9312 118.8522 0.02017913 -0.3852601 0.9225874 
62.56451 258.3994 -2.314536 0.9204434 0.0499353 -0.3876732 
73.77239 366.7837 81.52271 0.9418277 0.077726 0.3269852 
38.92877 242.5245 -46.34476 0.1165856 0.7486395 -0.6526459 
51.12973 228.4554 10.96744 0.01252118 -0.9999081 -0.005193193 
3.933568 463.8839 47.51443 -0.08727678 0.9824401 0.1649065 
-1.556451 357.3732 -57.73757 -0.128912 -0.2604107 -0.9568532 
74.84032 356.7878 -18.62684 0.8741111 -0.1508629 -0.4617037 
1.217523 235.3241 71.87286 -0.4267441 -0.8776057 0.2183976 
-5.501758 452.9366 78.43322 -0.249536 0.8756585 0.4134658 
66.82385 288.7277 92.10316 0.8712423 -0.2284433 0.4344544 
13.95039 269.1341 123.3093 -0.07319497 -0.2958038 0.9524404 
-27.90337 374.8051 116.6651 -0.6057014 0.1944457 0.7715676 
-60.45603 404.5301 -12.44541 -0.9090795 0.2226088 -0.3521643 
-27.92243 228.36 26.28735 0.003093116 -0.9999951 -0.0005261928 
-18.95174 437.3771 92.60822 -0.4600032 0.6709221 0.5816018 
25.62403 366.292 -58.31838 0.2117474 -0.1189778 -0.9700553 
46.27327 439.9937 84.63319 0.5249212 0.7046673 0.4773905 
9.730349 254.8326 115.0318 -0.3054633 -0.08065815 0.9487815 
68.20119 340.7167 -21.99431 0.7709054 -0.3190898 -0.551259 
-43.3481 444.379 40.60535 -0.6593506 0.740018 0.1327786 
83.39416 343.9289 12.19469 0.5175349 0.05375684 -0.8539718 
-31.58224 264.3232 -11.7726 -0.8330169 0.137544 -0.5358774 
-36.49481 260.6996 31.55862 -0.8882005 -0.1680509 0.4276199 
78.09862 305.7975 63.46135 0.983364 -0.1576472 0.09023561 
-51.96631 359.4569 -29.86773 -0.7945035 -0.1815681 -0.5794802 
-54.68976 429.4028 3.449479 -0.8164743 0.5380478 -0.2094617 
-48.5299 391.7921 88.35355 -0.8300315 0.07803108 0.5522309 
68.01694 285.819 19.45975 0.9743429 -0.2215224 -0.0397959 
64.4912 268.7523 43.83632 0.779014 -0.5952985 -0.1968675 
72.27598 432.5118 42.79832 0.8082922 0.5744923 0.1289278 
-63.94549 407.1322 0.9762658 -0.9474257 0.2371452 -0.2148178 
-65.00918 404.0738 45.88125 -0.9633657 0.1640292 0.2121815 
25.00257 463.0443 42.88803 0.2086751 0.9703999 0.1215682 
80.77389 409.2643 50.73127 0.9597232 0.1989676 0.1983513 
-23.1734 339.7618 -45.15855 -0.3501365 -0.4314369 -0.8314245 
59.62121 228.7314 -1.7974 0.02747951 -0.9995809 -0.009098266 
35.16 449.5766 79.39536 0.3721545 0.826129 0.4230978 
-32.14428 434.215 83.1237 -0.6230572 0.6261076 0.4688164 
-14.09008 300.067 -27.27778 -0.4638895 -0.2444961 -0.8514858 
7.116995 402.3768 -57.80475 -0.02300722 0.2381539 -0.9709548 
3.836185 357.7113 -58.33558 -0.05174633 -0.2565567 -0.965143 
43.1424 393.9103 -51.65981 0.4428448 0.1506093 -0.8838581 
-29.48407 413.4502 103.1211 -0.637168 0.3779804 0.6716753 
80.00248 354.0508 40.58543 0.9853517 0.1336938 0.1058677 
-68.61481 377.4143 26.26209 -0.9961185 -0.08045838 0.03569644 
-49.12778 401.8531 -32.56921 -0.7444268 0.2151148 -0.6321031 
-44.88082 289.2649 46.49806 -0.9378746 -0.3427345 -0.05407879 
-24.2526 365.7584 -53.13918 -0.4050924 -0.1333507 -0.9044986 
62.79165 232.6459 -50.02499 0.381466 0.8658813 -0.3236251 
-8.768475 231.5431 53.88414 -0.7316259 -0.3132479 0.6054744 
-67.73115 374.3166 8.785977 -0.9889826 -0.07555509 -0.1272981 
-7.784355 447.5961 86.72451 -0.3021202 0.8019454 0.5153707 
-10.94404 362.5605 128.1098 -0.2061411 0.06892639 0.9760917 
-75.76238 343.4847 16.29354 -0.06009731 -0.08096147 -0.9949038 
-46.21296 307.9185 76.77242 -0.944284 -0.2613213 0.2000974 
26.27091 443.3137 95.25134 0.2779428 0.7719494 0.5717009 
7.151508 229.5904 -59.6538 -0.1226219 0.7947167 -0.5944655 
17.78401 425.5925 114.1283 0.08866128 0.5201918 0.8494349 
18.75601 233.9871 104.7432 0.00534885 -0.8479787 0.5300032 
31.47831 436.8957 100.6448 0.3408182 0.7085431 0.6179076 
-43.15505 333.5912 -26.5732 -0.6690258 -0.4805979 -0.5669479 
48.95438 411.3631 -43.07725 0.5231163 0.3367895 -0.7828934 
-40.76926 285.0902 4.047514 -0.8875762 -0.1584005 -0.4325712 
44.8428 456.7411 22.98236 0.4577047 0.8883417 -0.03681754 
-2.00643 415.6945 118.0789 -0.186081 0.3797584 0.9061773 
55.82777 444.7455 -1.281072 0.6231015 0.7318601 -0.2759079 
-65.46644 409.201 13.13901 -0.9619981 0.2477551 -0.1147912 
38.3959 227.4362 -67.06042 -0.5994975 -0.4609371 -0.6543239 
-63.47571 400.3494 53.42966 -0.9512796 0.08844569 0.2953717 
-28.41719 246.2889 -31.43407 -0.4230574 0.6966832 -0.5793574 
59.14085 379.0254 106.499 0.7342671 0.1299596 0.6663049 
-39.29971 251.5742 23.13379 -0.9589869 -0.02084615 0.2826829 
-14.59986 273.942 110.7934 -0.582168 -0.3448186 0.7363291 
79.48724 356.2701 61.37319 0.9873543 0.1232496 0.0997045 
85.30223 367.8 23.2169 0.9915696 -0.1058237 0.07477255 
-47.85184 385.8724 89.93852 -0.836863 0.03328539 0.5463994 
-12.05718 248.9963 -34.1218 -0.1113962 0.382432 -0.917244 
-19.51875 227.9797 -46.82361 -0.009727916 -0.999925 0.007444805 
54.21386 446.9912 1.323342 0.5984388 0.7592103 -0.2558722 
84.04152 363.1366 30.63959 0.982427 -0.04954444 0.1799515 
-3.484834 314.8081 -36.30582 -0.2025125 -0.3590356 -0.9110884 
71.01481 395.9399 -25.55033 0.8430548 0.1433146 -0.5183817 
77.09441 332.2443 1.812671 0.944801 -0.2463876 -0.2159729 
-47.52583 439.4414 44.88581 -0.7098163 0.6815785 0.1777966 
7.566844 457.425 -12.02565 0.001076807 0.9024991 -0.4306903 
-68.72848 392.2469 26.29423 -0.998162 0.05710322 0.02029371 
26.64061 304.8887 130.883 0.5450144 -0.3183578 0.7756337 
72.50673 286.7309 75.14572 0.9439172 -0.2342598 0.2326859 
